ply
format ascii 1.0
element vertex 1402
property float x
property float y
property float z
end_header
8.66025403784439 94 5
8.66025403784439 93 5
6.92820323027551 92 4
6.92820323027551 91 4
6.92820323027551 90 4
6.92820323027551 89 4
6.92820323027551 88 4
6.92820323027551 87 4
6.92820323027551 86 4
6.92820323027551 85 4
5.19615242270663 84 3
5.19615242270663 83 3
3.46410161513776 82 2
3.46410161513776 81 2
5.19615242270663 80 3
3.46410161513776 79 2
3.46410161513776 78 2
3.46410161513776 77 2
3.46410161513776 76 2
261.539671942901 75 151
5.19615242270663 72 3
5.19615242270663 71 3
22.5166604983954 63 13
22.5166604983954 60 13
10.3923048454133 51 6
12.1243556529821 50 7
12.1243556529821 49 7
210.141527100425 217 111.734231943042
190.716680057528 139 101.405857561752
8.82947592858927 114 4.69471562785891
8.82947592858927 113 4.69471562785891
10.5953711143071 112 5.63365875343069
10.5953711143071 111 5.63365875343069
10.5953711143071 110 5.63365875343069
10.5953711143071 109 5.63365875343069
10.5953711143071 108 5.63365875343069
12.361266300025 107 6.57260187900247
10.5953711143071 106 5.63365875343069
12.361266300025 105 6.57260187900247
12.361266300025 104 6.57260187900247
10.5953711143071 103 5.63365875343069
10.5953711143071 102 5.63365875343069
10.5953711143071 101 5.63365875343069
10.5953711143071 100 5.63365875343069
10.5953711143071 99 5.63365875343069
10.5953711143071 98 5.63365875343069
8.82947592858927 97 4.69471562785891
8.82947592858927 96 4.69471562785891
8.82947592858927 95 4.69471562785891
8.82947592858927 94 4.69471562785891
7.06358074287142 93 3.75577250228713
7.06358074287142 92 3.75577250228713
7.06358074287142 91 3.75577250228713
7.06358074287142 90 3.75577250228713
7.06358074287142 89 3.75577250228713
7.06358074287142 88 3.75577250228713
7.06358074287142 87 3.75577250228713
7.06358074287142 86 3.75577250228713
5.29768555715356 85 2.81682937671535
5.29768555715356 84 2.81682937671535
5.29768555715356 83 2.81682937671535
5.29768555715356 82 2.81682937671535
5.29768555715356 81 2.81682937671535
3.53179037143571 80 1.87788625114356
3.53179037143571 79 1.87788625114356
3.53179037143571 78 1.87788625114356
1.76589518571785 77 0.938943125571782
5.29768555715356 72 2.81682937671535
185.418994500375 71 98.5890281850371
22.9566374143321 61 12.2062606324332
22.9566374143321 60 12.2062606324332
12.361266300025 51 6.57260187900247
12.361266300025 50 6.57260187900247
12.361266300025 49 6.57260187900247
12.361266300025 48 6.57260187900247
19.4248470428964 34 10.3283743812896
19.4248470428964 33 10.3283743812896
195.937102093218 206 95.5649100000189
8.98794046299167 113 4.38371146789078
10.78552855559 111 5.26045376146893
12.5831166481883 110 6.13719605504709
10.78552855559 109 5.26045376146893
10.78552855559 107 5.26045376146893
10.78552855559 106 5.26045376146893
10.78552855559 105 5.26045376146893
10.78552855559 104 5.26045376146893
10.78552855559 103 5.26045376146893
10.78552855559 102 5.26045376146893
10.78552855559 101 5.26045376146893
10.78552855559 100 5.26045376146893
10.78552855559 99 5.26045376146893
8.98794046299167 98 4.38371146789078
8.98794046299167 97 4.38371146789078
8.98794046299167 96 4.38371146789078
8.98794046299167 95 4.38371146789078
8.98794046299167 94 4.38371146789078
7.19035237039334 93 3.50696917431262
7.19035237039334 92 3.50696917431262
7.19035237039334 91 3.50696917431262
7.19035237039334 90 3.50696917431262
7.19035237039334 89 3.50696917431262
7.19035237039334 88 3.50696917431262
5.392764277795 87 2.63022688073447
5.392764277795 86 2.63022688073447
5.392764277795 85 2.63022688073447
5.392764277795 84 2.63022688073447
5.392764277795 83 2.63022688073447
3.59517618519667 82 1.75348458715631
3.59517618519667 81 1.75348458715631
3.59517618519667 80 1.75348458715631
3.59517618519667 79 1.75348458715631
3.59517618519667 78 1.75348458715631
3.59517618519667 77 1.75348458715631
12.5831166481883 49 6.13719605504709
12.5831166481883 45 6.13719605504709
197.325818850802 206 87.8551149043729
9.13545457642601 113 4.067366430758
9.13545457642601 112 4.067366430758
10.9625454917112 111 4.8808397169096
12.7896364069964 110 5.6943130030612
9.13545457642601 109 4.067366430758
9.13545457642601 108 4.067366430758
10.9625454917112 107 4.8808397169096
10.9625454917112 106 4.8808397169096
10.9625454917112 105 4.8808397169096
10.9625454917112 104 4.8808397169096
12.7896364069964 103 5.6943130030612
10.9625454917112 102 4.8808397169096
10.9625454917112 101 4.8808397169096
10.9625454917112 100 4.8808397169096
10.9625454917112 99 4.8808397169096
9.13545457642601 98 4.067366430758
9.13545457642601 97 4.067366430758
9.13545457642601 96 4.067366430758
9.13545457642601 95 4.067366430758
7.30836366114081 94 3.2538931446064
7.30836366114081 93 3.2538931446064
7.30836366114081 92 3.2538931446064
7.30836366114081 91 3.2538931446064
7.30836366114081 90 3.2538931446064
7.30836366114081 89 3.2538931446064
7.30836366114081 88 3.2538931446064
7.30836366114081 87 3.2538931446064
5.48127274585561 86 2.4404198584548
5.48127274585561 85 2.4404198584548
5.48127274585561 84 2.4404198584548
3.6541818305704 83 1.6269465723032
5.48127274585561 82 2.4404198584548
5.48127274585561 81 2.4404198584548
3.6541818305704 80 1.6269465723032
3.6541818305704 79 1.6269465723032
1.8270909152852 78 0.813473286151601
1.8270909152852 77 0.813473286151601
5.48127274585561 72 2.4404198584548
5.48127274585561 71 2.4404198584548
23.7521818987076 64 10.5751527199708
25.5792728139928 60 11.3886260061224
12.7896364069964 50 5.6943130030612
14.6167273222816 49 6.50778628921281
12.7896364069964 44 5.6943130030612
20.0980000681372 33 8.94820614766761
200.271712586426 206 80.915024177837
7.4174708365343 113 2.9968527473273
9.27183854566788 112 3.74606593415912
11.1262062548015 111 4.49527912099094
11.1262062548015 110 4.49527912099094
11.1262062548015 109 4.49527912099094
11.1262062548015 108 4.49527912099094
11.1262062548015 107 4.49527912099094
11.1262062548015 106 4.49527912099094
11.1262062548015 105 4.49527912099094
11.1262062548015 104 4.49527912099094
12.980573963935 103 5.24449230782277
11.1262062548015 102 4.49527912099094
11.1262062548015 101 4.49527912099094
11.1262062548015 100 4.49527912099094
11.1262062548015 99 4.49527912099094
9.27183854566788 98 3.74606593415912
9.27183854566788 97 3.74606593415912
9.27183854566788 96 3.74606593415912
9.27183854566788 95 3.74606593415912
9.27183854566788 94 3.74606593415912
7.4174708365343 93 2.9968527473273
7.4174708365343 92 2.9968527473273
7.4174708365343 91 2.9968527473273
7.4174708365343 90 2.9968527473273
7.4174708365343 89 2.9968527473273
7.4174708365343 88 2.9968527473273
5.56310312740073 87 2.24763956049547
5.56310312740073 86 2.24763956049547
5.56310312740073 85 2.24763956049547
5.56310312740073 84 2.24763956049547
3.70873541826715 83 1.49842637366365
3.70873541826715 82 1.49842637366365
3.70873541826715 81 1.49842637366365
3.70873541826715 80 1.49842637366365
3.70873541826715 79 1.49842637366365
3.70873541826715 78 1.49842637366365
3.70873541826715 77 1.49842637366365
3.70873541826715 74 1.49842637366365
187.291138622491 69 75.6705318700142
9.27183854566788 50 3.74606593415912
231.795963641697 49 93.651648353978
12.980573963935 45 5.24449230782277
12.980573963935 44 5.24449230782277
0 40 0
208.611761814472 156 75.9284718182985
11.2763114494309 110 4.10424171990803
7.51754096628727 107 2.73616114660535
7.51754096628727 106 2.73616114660535
9.39692620785909 105 3.42020143325669
167.265286499892 104 60.8795855119691
13.1556966910027 103 4.78828200655936
11.2763114494309 102 4.10424171990803
11.2763114494309 101 4.10424171990803
11.2763114494309 100 4.10424171990803
9.39692620785909 99 3.42020143325669
9.39692620785909 98 3.42020143325669
7.51754096628727 97 2.73616114660535
253.717007612195 96 92.3454386979306
7.51754096628727 95 2.73616114660535
7.51754096628727 94 2.73616114660535
5.63815572471545 92 2.05212085995401
5.63815572471545 91 2.05212085995401
7.51754096628727 90 2.73616114660535
5.63815572471545 89 2.05212085995401
5.63815572471545 88 2.05212085995401
5.63815572471545 87 2.05212085995401
5.63815572471545 86 2.05212085995401
5.63815572471545 85 2.05212085995401
3.75877048314363 84 1.36808057330268
1.87938524157182 83 0.684040286651338
5.63815572471545 82 2.05212085995401
1.87938524157182 81 0.684040286651338
3.75877048314363 79 1.36808057330268
1.87938524157182 78 0.684040286651338
1.87938524157182 77 0.684040286651338
197.335450365041 75 71.8242300983905
264.993319061626 74 96.4496804178386
26.3113933820054 60 9.57656401311873
46.9846310392954 49 17.1010071662834
13.1556966910027 43 4.78828200655936
11.2763114494309 42 4.10424171990803
3.75877048314363 40 1.36808057330268
0 39 0
9.39692620785909 32 3.42020143325669
7.60845213036123 113 2.47213595499958
7.60845213036123 112 2.47213595499958
9.51056516295154 111 3.09016994374948
11.4126781955418 110 3.70820393249937
9.51056516295154 109 3.09016994374948
11.4126781955418 108 3.70820393249937
11.4126781955418 107 3.70820393249937
11.4126781955418 106 3.70820393249937
11.4126781955418 105 3.70820393249937
11.4126781955418 104 3.70820393249937
11.4126781955418 103 3.70820393249937
11.4126781955418 102 3.70820393249937
11.4126781955418 101 3.70820393249937
9.51056516295154 100 3.09016994374948
9.51056516295154 99 3.09016994374948
9.51056516295154 98 3.09016994374948
9.51056516295154 97 3.09016994374948
9.51056516295154 96 3.09016994374948
9.51056516295154 95 3.09016994374948
7.60845213036123 94 2.47213595499958
7.60845213036123 93 2.47213595499958
7.60845213036123 92 2.47213595499958
5.70633909777092 91 1.85410196624968
5.70633909777092 90 1.85410196624968
5.70633909777092 89 1.85410196624968
5.70633909777092 88 1.85410196624968
5.70633909777092 87 1.85410196624968
5.70633909777092 86 1.85410196624968
5.70633909777092 85 1.85410196624968
5.70633909777092 84 1.85410196624968
3.80422606518062 83 1.23606797749979
3.80422606518062 82 1.23606797749979
3.80422606518062 81 1.23606797749979
3.80422606518062 80 1.23606797749979
3.80422606518062 79 1.23606797749979
3.80422606518062 78 1.23606797749979
1.90211303259031 77 0.618033988749895
11.4126781955418 50 3.70820393249937
11.4126781955418 49 3.70820393249937
13.3147912281322 42 4.32623792124927
0 39 0
7.69009356750655 114 2.20509884653599
9.61261695938319 113 2.75637355816999
9.61261695938319 112 2.75637355816999
11.5351403512598 111 3.30764826980399
11.5351403512598 110 3.30764826980399
9.61261695938319 109 2.75637355816999
23.0702807025197 108 6.61529653960798
23.0702807025197 107 6.61529653960798
11.5351403512598 106 3.30764826980399
11.5351403512598 105 3.30764826980399
11.5351403512598 104 3.30764826980399
11.5351403512598 103 3.30764826980399
11.5351403512598 102 3.30764826980399
11.5351403512598 101 3.30764826980399
9.61261695938319 100 2.75637355816999
9.61261695938319 99 2.75637355816999
9.61261695938319 98 2.75637355816999
9.61261695938319 97 2.75637355816999
9.61261695938319 96 2.75637355816999
9.61261695938319 95 2.75637355816999
7.69009356750655 94 2.20509884653599
7.69009356750655 93 2.20509884653599
5.76757017562991 92 1.653824134902
5.76757017562991 91 1.653824134902
5.76757017562991 90 1.653824134902
5.76757017562991 89 1.653824134902
5.76757017562991 88 1.653824134902
5.76757017562991 87 1.653824134902
5.76757017562991 86 1.653824134902
5.76757017562991 85 1.653824134902
3.84504678375328 84 1.102549423268
3.84504678375328 83 1.102549423268
3.84504678375328 82 1.102549423268
3.84504678375328 81 1.102549423268
3.84504678375328 80 1.102549423268
3.84504678375328 79 1.102549423268
3.84504678375328 78 1.102549423268
3.84504678375328 77 1.102549423268
0 74 0
36.5279444456561 71 10.474219521046
46.1405614050393 70 13.230593079216
55.7531783644225 69 15.986966637386
61.5207485400524 68 17.640790772288
73.0558888913123 67 20.9484390420919
111.506356728845 63 31.9739332747719
124.964020471981 62 35.8328562562099
13.4576637431365 42 3.85892298143799
13.4576637431365 41 3.85892298143799
30.7603742700262 34 8.82039538614398
21.147757310643 33 6.06402182797398
207.643285423063 208 51.7712856583289
11.643548715312 111 2.90306274719601
11.643548715312 110 2.90306274719601
9.70295726275997 109 2.41921895599668
11.643548715312 108 2.90306274719601
11.643548715312 107 2.90306274719601
11.643548715312 106 2.90306274719601
11.643548715312 105 2.90306274719601
11.643548715312 104 2.90306274719601
11.643548715312 103 2.90306274719601
11.643548715312 102 2.90306274719601
11.643548715312 101 2.90306274719601
9.70295726275997 100 2.41921895599668
9.70295726275997 99 2.41921895599668
9.70295726275997 98 2.41921895599668
9.70295726275997 97 2.41921895599668
9.70295726275997 96 2.41921895599668
7.76236581020797 95 1.93537516479734
7.76236581020797 94 1.93537516479734
7.76236581020797 93 1.93537516479734
7.76236581020797 92 1.93537516479734
7.76236581020797 91 1.93537516479734
5.82177435765598 90 1.45153137359801
5.82177435765598 89 1.45153137359801
5.82177435765598 88 1.45153137359801
5.82177435765598 87 1.45153137359801
5.82177435765598 86 1.45153137359801
5.82177435765598 85 1.45153137359801
3.88118290510399 84 0.967687582398671
3.88118290510399 83 0.967687582398671
3.88118290510399 82 0.967687582398671
3.88118290510399 81 0.967687582398671
1.94059145255199 80 0.483843791199335
1.94059145255199 79 0.483843791199335
1.94059145255199 78 0.483843791199335
1.94059145255199 77 0.483843791199335
1.94059145255199 75 0.483843791199335
1.94059145255199 74 0.483843791199335
199.880919612855 54 49.8359104935316
227.049199948583 51 56.6097235703222
15.5247316204159 42 3.87075032959468
15.5247316204159 41 3.87075032959468
209.323586557034 208 44.4931018350005
207.367291355567 205 44.077278453365
211.279881758502 53 44.9089252166361
217.148767362905 52 46.1563953615426
228.886538571711 51 48.6513356513557
238.668014579049 50 50.7304525595333
248.449490586387 49 52.8095694677109
254.31837619079 48 54.0570396126175
262.14355699666 47 55.7203331391595
271.925033003998 46 57.7994500473371
285.619099414271 45 60.7102137187858
295.400575421609 44 62.7893306269634
309.094641831883 43 65.700094298412
311.05093703335 42 66.1159176800475
9.78147600733806 40 2.07911690817759
5.86888560440283 39 1.24747014490656
3.91259040293522 38 0.831646763271038
39.1259040293522 33 8.31646763271038
29.3444280220142 32 6.23735072453278
210.748859144613 208 37.1607100207231
9.84807753012208 113 1.7364817766693
9.84807753012208 112 1.7364817766693
9.84807753012208 111 1.7364817766693
11.8176930361465 110 2.08377813200317
9.84807753012208 109 1.7364817766693
9.84807753012208 108 1.7364817766693
11.8176930361465 107 2.08377813200317
11.8176930361465 106 2.08377813200317
11.8176930361465 105 2.08377813200317
11.8176930361465 104 2.08377813200317
11.8176930361465 103 2.08377813200317
11.8176930361465 102 2.08377813200317
11.8176930361465 101 2.08377813200317
9.84807753012208 100 1.7364817766693
9.84807753012208 99 1.7364817766693
9.84807753012208 98 1.7364817766693
9.84807753012208 97 1.7364817766693
7.87846202409767 96 1.38918542133544
7.87846202409767 95 1.38918542133544
7.87846202409767 94 1.38918542133544
7.87846202409767 93 1.38918542133544
5.90884651807325 92 1.04188906600158
5.90884651807325 91 1.04188906600158
5.90884651807325 90 1.04188906600158
5.90884651807325 89 1.04188906600158
1.96961550602442 88 0.347296355333861
3.93923101204883 87 0.694592710667722
3.93923101204883 86 0.694592710667722
3.93923101204883 85 0.694592710667722
3.93923101204883 84 0.694592710667722
3.93923101204883 83 0.694592710667722
1.96961550602442 82 0.347296355333861
3.93923101204883 81 0.694592710667722
3.93923101204883 80 0.694592710667722
1.96961550602442 79 0.347296355333861
1.96961550602442 78 0.347296355333861
1.96961550602442 77 0.347296355333861
0 76 0
0 75 0
1.96961550602442 74 0.347296355333861
1.96961550602442 73 0.347296355333861
31.5138480963907 70 5.55674168534177
53.1796186626592 68 9.37700159401424
120.146545867489 62 21.1850776753655
126.055392385563 61 22.2269667413671
141.812316433758 60 25.005337584038
15.7569240481953 41 2.77837084267089
15.7569240481953 40 2.77837084267089
13.7873085421709 39 2.43107448733703
245.586481047909 230 34.5149290380962
237.664336497977 222 33.4015442304157
233.703264223011 207 32.8448518265755
7.92214454993256 112 1.11338480768052
9.90268068741571 111 1.39173100960065
11.8832168248988 110 1.67007721152079
11.8832168248988 109 1.67007721152079
9.90268068741571 108 1.39173100960065
11.8832168248988 107 1.67007721152079
11.8832168248988 106 1.67007721152079
11.8832168248988 105 1.67007721152079
11.8832168248988 104 1.67007721152079
11.8832168248988 103 1.67007721152079
11.8832168248988 102 1.67007721152079
11.8832168248988 101 1.67007721152079
299.060956759954 100 42.0302764899398
9.90268068741571 99 1.39173100960065
9.90268068741571 98 1.39173100960065
9.90268068741571 97 1.39173100960065
9.90268068741571 96 1.39173100960065
9.90268068741571 95 1.39173100960065
7.92214454993256 94 1.11338480768052
7.92214454993256 93 1.11338480768052
5.94160841244942 92 0.835038605760393
5.94160841244942 91 0.835038605760393
5.94160841244942 90 0.835038605760393
5.94160841244942 89 0.835038605760393
3.96107227496628 88 0.556692403840262
3.96107227496628 87 0.556692403840262
3.96107227496628 86 0.556692403840262
3.96107227496628 85 0.556692403840262
3.96107227496628 84 0.556692403840262
3.96107227496628 83 0.556692403840262
1.98053613748314 82 0.278346201920131
1.98053613748314 81 0.278346201920131
3.96107227496628 80 0.556692403840262
1.98053613748314 79 0.278346201920131
1.98053613748314 78 0.278346201920131
1.98053613748314 77 0.278346201920131
1.98053613748314 76 0.278346201920131
1.98053613748314 75 0.278346201920131
1.98053613748314 74 0.278346201920131
172.306643961033 57 24.2161195670514
194.092541473348 55 27.2779277881728
219.839511260629 52 30.8964284131345
233.703264223011 51 32.8448518265755
237.664336497977 50 33.4015442304157
249.547553322876 49 35.0716214419365
279.255595385123 46 39.2468144707385
285.197203797572 45 40.0818530764989
303.022029034921 44 42.58696889378
15.8442890998651 41 2.22676961536105
13.863752962382 40 1.94842341344092
0 37 0
212.827685608811 208 22.3690911392778
15.9123503258924 117 1.67245541228246
17.9013941166289 116 1.88151233881776
17.9013941166289 115 1.88151233881776
19.8904379073655 114 2.09056926535307
7.95617516294619 112 0.836227706141228
9.94521895368274 111 1.04528463267653
11.9342627444193 110 1.25434155921184
9.94521895368274 109 1.04528463267653
9.94521895368274 108 1.04528463267653
11.9342627444193 107 1.25434155921184
9.94521895368274 106 1.04528463267653
11.9342627444193 105 1.25434155921184
11.9342627444193 104 1.25434155921184
11.9342627444193 103 1.25434155921184
9.94521895368274 102 1.04528463267653
218.79481698102 101 22.9962619188838
9.94521895368274 100 1.04528463267653
9.94521895368274 99 1.04528463267653
9.94521895368274 98 1.04528463267653
7.95617516294619 97 0.836227706141228
7.95617516294619 96 0.836227706141228
7.95617516294619 95 0.836227706141228
7.95617516294619 94 0.836227706141228
7.95617516294619 93 0.836227706141228
5.96713137220964 92 0.627170779605921
5.96713137220964 91 0.627170779605921
19.8904379073655 90 2.09056926535307
3.97808758147309 89 0.418113853070614
3.97808758147309 88 0.418113853070614
3.97808758147309 87 0.418113853070614
3.97808758147309 86 0.418113853070614
3.97808758147309 85 0.418113853070614
3.97808758147309 84 0.418113853070614
1.98904379073655 83 0.209056926535307
1.98904379073655 82 0.209056926535307
1.98904379073655 81 0.209056926535307
1.98904379073655 80 0.209056926535307
1.98904379073655 79 0.209056926535307
1.98904379073655 78 0.209056926535307
1.98904379073655 77 0.209056926535307
304.323699982692 75 31.985709759902
0 72 0
33.8137444425213 70 3.55396775110022
45.7480071869406 69 4.80830931031206
57.6822699313599 68 6.0626508695239
67.6274888850426 67 7.10793550220044
79.5617516294619 66 8.36227706141228
89.5069705831446 65 9.40756169408881
101.441233327564 64 10.6619032533007
111.386452281247 63 11.7071878859772
123.320715025666 62 12.961529445189
133.265933979349 61 14.0068140778656
143.211152933031 60 15.0520987105421
151.167328095978 59 15.8883264166833
163.101590840397 58 17.1426679758952
171.057766003343 57 17.9788956820364
179.013941166289 56 18.8151233881776
188.959160119972 55 19.8604080208542
19.8904379073655 41 2.09056926535307
17.9013941166289 40 1.88151233881776
15.9123503258924 39 1.67245541228246
13.9233065351558 38 1.46339848574715
11.9342627444193 37 1.25434155921184
35.8027882332578 35 3.76302467763553
31.8247006517848 34 3.34491082456491
219.464091057161 156 15.3464242237076
9.97564050259824 111 0.697564737441252
9.97564050259824 110 0.697564737441252
9.97564050259824 109 0.697564737441252
9.97564050259824 108 0.697564737441252
9.97564050259824 107 0.697564737441252
11.9707686031179 106 0.837077684929503
11.9707686031179 105 0.837077684929503
9.97564050259824 104 0.697564737441252
11.9707686031179 103 0.837077684929503
11.9707686031179 102 0.837077684929503
9.97564050259824 101 0.697564737441252
9.97564050259824 100 0.697564737441252
9.97564050259824 99 0.697564737441252
9.97564050259824 98 0.697564737441252
7.9805124020786 97 0.558051789953002
7.9805124020786 96 0.558051789953002
7.9805124020786 95 0.558051789953002
7.9805124020786 94 0.558051789953002
5.98538430155895 93 0.418538842464751
5.98538430155895 92 0.418538842464751
5.98538430155895 91 0.418538842464751
5.98538430155895 90 0.418538842464751
3.9902562010393 89 0.279025894976501
3.9902562010393 88 0.279025894976501
3.9902562010393 87 0.279025894976501
3.9902562010393 86 0.279025894976501
3.9902562010393 85 0.279025894976501
3.9902562010393 84 0.279025894976501
1.99512810051965 83 0.13951294748825
3.9902562010393 82 0.279025894976501
1.99512810051965 81 0.13951294748825
1.99512810051965 80 0.13951294748825
1.99512810051965 79 0.13951294748825
1.99512810051965 78 0.13951294748825
1.99512810051965 77 0.13951294748825
0 76 0
1.99512810051965 75 0.13951294748825
1.99512810051965 74 0.13951294748825
0 73 0
181.556657147288 56 12.6956782214308
205.498194353524 54 14.3698335912898
217.468962956642 53 15.2069112762193
227.44460345924 52 15.9044760136606
235.425115861319 51 16.4625278036136
247.395884464436 50 17.2996054885431
259.366653067554 49 18.1366831734726
271.337421670672 48 18.9737608584021
281.31306217327 47 19.6713255958433
293.283830776388 46 20.5084032807728
307.249727480026 45 21.4849939131906
317.225367982624 44 22.1825586506318
17.9561529046768 41 1.25561652739425
13.9658967036375 40 0.976590632417753
41.8976901109126 34 2.92977189725326
35.9123058093537 33 2.51123305478851
213.869636982087 208 7.46849229433523
11.9926899242292 111 0.418793960430013
11.9926899242292 110 0.418793960430013
11.9926899242292 109 0.418793960430013
9.99390827019096 108 0.348994967025011
11.9926899242292 107 0.418793960430013
11.9926899242292 106 0.418793960430013
11.9926899242292 105 0.418793960430013
11.9926899242292 104 0.418793960430013
11.9926899242292 103 0.418793960430013
11.9926899242292 102 0.418793960430013
9.99390827019096 101 0.348994967025011
9.99390827019096 100 0.348994967025011
9.99390827019096 99 0.348994967025011
9.99390827019096 98 0.348994967025011
7.99512661615277 97 0.279195973620009
7.99512661615277 96 0.279195973620009
7.99512661615277 95 0.279195973620009
7.99512661615277 94 0.279195973620009
5.99634496211458 93 0.209396980215007
5.99634496211458 92 0.209396980215007
5.99634496211458 91 0.209396980215007
5.99634496211458 90 0.209396980215007
5.99634496211458 89 0.209396980215007
3.99756330807638 88 0.139597986810004
3.99756330807638 87 0.139597986810004
3.99756330807638 86 0.139597986810004
3.99756330807638 85 0.139597986810004
3.99756330807638 84 0.139597986810004
1.99878165403819 83 0.0697989934050022
1.99878165403819 82 0.0697989934050022
1.99878165403819 81 0.0697989934050022
1.99878165403819 80 0.0697989934050022
1.99878165403819 79 0.0697989934050022
1.99878165403819 78 0.0697989934050022
1.99878165403819 77 0.0697989934050022
1.99878165403819 76 0.0697989934050022
1.99878165403819 75 0.0697989934050022
205.874510365934 54 7.18929632071522
223.863545252277 52 7.81748726136024
233.857453522468 51 8.16648222838525
249.847706754774 50 8.72487417562527
255.844051716889 49 8.93427115584028
273.833086603232 48 9.5624620964853
275.831868257271 47 9.6322610898903
305.813593067843 45 10.6792459909653
317.806282992073 44 11.0980399513953
17.9890348863437 41 0.62819094064502
17.9890348863437 40 0.62819094064502
13.9914715782673 39 0.488592953835015
11.9926899242292 38 0.418793960430013
11.9926899242292 37 0.418793960430013
8 111 4.89842541528951E-16
10 110 6.12303176911189E-16
10 109 6.12303176911189E-16
10 108 6.12303176911189E-16
10 107 6.12303176911189E-16
12 106 7.34763812293426E-16
12 105 7.34763812293426E-16
12 104 7.34763812293426E-16
10 103 6.12303176911189E-16
10 102 6.12303176911189E-16
10 101 6.12303176911189E-16
10 100 6.12303176911189E-16
8 99 4.89842541528951E-16
8 98 4.89842541528951E-16
8 97 4.89842541528951E-16
8 96 4.89842541528951E-16
8 95 4.89842541528951E-16
8 94 4.89842541528951E-16
8 93 4.89842541528951E-16
6 92 3.67381906146713E-16
6 91 3.67381906146713E-16
6 90 3.67381906146713E-16
4 89 2.44921270764476E-16
4 88 2.44921270764476E-16
2 87 1.22460635382238E-16
4 86 2.44921270764476E-16
4 85 2.44921270764476E-16
4 84 2.44921270764476E-16
2 83 1.22460635382238E-16
2 82 1.22460635382238E-16
2 81 1.22460635382238E-16
2 80 1.22460635382238E-16
2 79 1.22460635382238E-16
2 78 1.22460635382238E-16
2 77 1.22460635382238E-16
2 76 1.22460635382238E-16
0 75 0
0 74 0
2 71 1.22460635382238E-16
36 69 2.20429143688028E-15
48 68 2.93905524917371E-15
58 67 3.55135842608489E-15
70 66 4.28612223837832E-15
84 65 5.14334668605399E-15
94 64 5.75564986296517E-15
106 63 6.4904136752586E-15
116 62 7.10271685216979E-15
250 61 1.53075794227797E-14
140 60 8.57224447675664E-15
300 59 1.83690953073357E-14
168 57 1.0286693372108E-14
314 46 1.92263197550113E-14
12 37 7.34763812293426E-16
12 36 7.34763812293426E-16
32 35 1.9593701661158E-15
11.9926899242292 110 -0.418793960430012
273.833086603232 101 -9.56246209648526
3.99756330807638 89 -0.139597986810004
1.99878165403819 88 -0.0697989934050019
0 87 0
127.922025858444 61 -4.46713557792012
151.907405706903 59 -5.30472349878015
163.900095631132 58 -5.72351745921016
175.892785555361 57 -6.14231141964017
187.88547547959 56 -6.56110538007018
199.878165403819 55 -6.97989934050019
209.87207367401 54 -7.3288943075252
221.864763598239 53 -7.74768826795521
235.856235176507 52 -8.23628122179023
249.847706754774 51 -8.72487417562524
257.842833370927 50 -9.00407014924525
269.835523295156 49 -9.42286410967526
285.825776527461 48 -9.98125605691527
299.817248105729 47 -10.4698490107503
307.812374721882 46 -10.7490449843703
317.806282992073 45 -11.0980399513953
19.9878165403819 41 -0.697989934050019
17.9890348863437 40 -0.628190940645017
15.9902532323055 39 -0.558391947240015
11.9926899242292 38 -0.418793960430012
7.99512661615277 37 -0.279195973620008
5.99634496211458 36 -0.209396980215006
1.99878165403819 35 -0.0697989934050019
27.9829431565347 33 -0.977185907670027
213.478706755602 208 -14.9278853812428
13.9658967036375 117 -0.976590632417755
9.97564050259824 109 -0.697564737441253
9.97564050259824 108 -0.697564737441253
9.97564050259824 107 -0.697564737441253
11.9707686031179 106 -0.837077684929504
11.9707686031179 105 -0.837077684929504
11.9707686031179 104 -0.837077684929504
11.9707686031179 103 -0.837077684929504
9.97564050259824 102 -0.697564737441253
9.97564050259824 101 -0.697564737441253
9.97564050259824 100 -0.697564737441253
9.97564050259824 99 -0.697564737441253
7.9805124020786 98 -0.558051789953003
7.9805124020786 97 -0.558051789953003
7.9805124020786 96 -0.558051789953003
7.9805124020786 95 -0.558051789953003
7.9805124020786 94 -0.558051789953003
7.9805124020786 93 -0.558051789953003
305.254599379506 92 -21.3454809657024
5.98538430155895 91 -0.418538842464752
5.98538430155895 90 -0.418538842464752
5.98538430155895 89 -0.418538842464752
3.9902562010393 88 -0.279025894976501
3.9902562010393 87 -0.279025894976501
1.99512810051965 86 -0.139512947488251
3.9902562010393 85 -0.279025894976501
1.99512810051965 84 -0.139512947488251
221.459219157681 83 -15.4859371711958
1.99512810051965 82 -0.139512947488251
1.99512810051965 81 -0.139512947488251
1.99512810051965 80 -0.139512947488251
1.99512810051965 79 -0.139512947488251
0 78 0
0 77 0
0 76 0
0 75 0
21.9464091057161 73 -1.53464242237076
1.99512810051965 71 -0.139512947488251
31.9220496083144 69 -2.23220715981201
43.8928182114323 68 -3.06928484474152
205.498194353524 67 -14.3698335912898
69.8294835181877 66 -4.88295316208877
81.8002521213056 65 -5.72003084701828
93.7710207244235 64 -6.55710853194778
101.751533126502 63 -7.11516032190078
115.71742983014 62 -8.09175095431854
127.688198433258 61 -8.92882863924804
141.654095136895 60 -9.9054192716658
15.9610248041572 43 -1.11610357990601
25.9366653067554 42 -1.81366831734726
23.9415372062358 41 -1.67415536985901
23.9415372062358 40 -1.67415536985901
21.9464091057161 39 -1.53464242237076
13.9658967036375 37 -0.976590632417755
13.9658967036375 36 -0.976590632417755
31.9220496083144 35 -2.23220715981201
5.96713137220964 111 -0.627170779605921
9.94521895368274 108 -1.04528463267654
11.9342627444193 107 -1.25434155921184
11.9342627444193 106 -1.25434155921184
11.9342627444193 105 -1.25434155921184
9.94521895368274 104 -1.04528463267654
9.94521895368274 103 -1.04528463267654
9.94521895368274 102 -1.04528463267654
9.94521895368274 101 -1.04528463267654
9.94521895368274 100 -1.04528463267654
9.94521895368274 99 -1.04528463267654
9.94521895368274 98 -1.04528463267654
7.95617516294619 97 -0.836227706141229
7.95617516294619 96 -0.836227706141229
7.95617516294619 95 -0.836227706141229
7.95617516294619 94 -0.836227706141229
7.95617516294619 93 -0.836227706141229
5.96713137220964 92 -0.627170779605921
5.96713137220964 91 -0.627170779605921
5.96713137220964 90 -0.627170779605921
5.96713137220964 89 -0.627170779605921
3.97808758147309 88 -0.418113853070614
1.98904379073655 87 -0.209056926535307
1.98904379073655 86 -0.209056926535307
1.98904379073655 85 -0.209056926535307
1.98904379073655 84 -0.209056926535307
1.98904379073655 83 -0.209056926535307
1.98904379073655 82 -0.209056926535307
0 81 0
1.98904379073655 80 -0.209056926535307
0 79 0
1.98904379073655 78 -0.209056926535307
1.98904379073655 77 -0.209056926535307
0 76 0
0 75 0
0 72 0
15.9123503258924 39 -1.67245541228246
13.9233065351558 38 -1.46339848574715
9.94521895368274 36 -1.04528463267654
213.897902848179 206 -30.0613898073741
17.8248252373483 114 -2.50511581728118
7.92214454993256 111 -1.11338480768052
9.90268068741571 110 -1.39173100960065
9.90268068741571 109 -1.39173100960065
9.90268068741571 108 -1.39173100960065
11.8832168248988 107 -1.67007721152078
11.8832168248988 106 -1.67007721152078
11.8832168248988 105 -1.67007721152078
11.8832168248988 104 -1.67007721152078
9.90268068741571 103 -1.39173100960065
9.90268068741571 102 -1.39173100960065
9.90268068741571 101 -1.39173100960065
297.080420622471 100 -41.7519302880196
9.90268068741571 99 -1.39173100960065
9.90268068741571 98 -1.39173100960065
7.92214454993256 97 -1.11338480768052
7.92214454993256 96 -1.11338480768052
7.92214454993256 95 -1.11338480768052
293.119348347505 94 -41.1952378841794
5.94160841244942 93 -0.835038605760392
5.94160841244942 92 -0.835038605760392
5.94160841244942 91 -0.835038605760392
5.94160841244942 90 -0.835038605760392
3.96107227496628 89 -0.556692403840262
3.96107227496628 88 -0.556692403840262
1.98053613748314 87 -0.278346201920131
0 86 0
0 85 0
1.98053613748314 84 -0.278346201920131
1.98053613748314 83 -0.278346201920131
0 82 0
0 81 0
0 80 0
0 79 0
0 78 0
0 77 0
229.742191948044 76 -32.2881594227352
0 74 0
33.6691143372134 68 -4.73188543264222
51.4939395745617 67 -7.2370012499234
61.3966202619774 66 -8.62873225952405
69.3187648119099 65 -9.74211706720458
81.2019816368088 64 -11.4121942787254
17.8248252373483 40 -2.50511581728118
33.6691143372134 36 -4.73188543264222
9.90268068741571 35 -1.39173100960065
214.688090156661 206 -37.8553027313908
9.84807753012208 110 -1.7364817766693
9.84807753012208 109 -1.7364817766693
9.84807753012208 106 -1.7364817766693
11.8176930361465 105 -2.08377813200316
11.8176930361465 104 -2.08377813200316
9.84807753012208 103 -1.7364817766693
9.84807753012208 102 -1.7364817766693
9.84807753012208 101 -1.7364817766693
9.84807753012208 100 -1.7364817766693
9.84807753012208 99 -1.7364817766693
9.84807753012208 98 -1.7364817766693
9.84807753012208 97 -1.7364817766693
9.84807753012208 96 -1.7364817766693
7.87846202409767 95 -1.38918542133544
7.87846202409767 94 -1.38918542133544
7.87846202409767 93 -1.38918542133544
5.90884651807325 92 -1.04188906600158
5.90884651807325 91 -1.04188906600158
5.90884651807325 90 -1.04188906600158
1.96961550602442 89 -0.347296355333861
3.93923101204883 88 -0.694592710667721
1.96961550602442 87 -0.347296355333861
1.96961550602442 86 -0.347296355333861
1.96961550602442 85 -0.347296355333861
1.96961550602442 84 -0.347296355333861
0 83 0
1.96961550602442 82 -0.347296355333861
0 81 0
0 80 0
0 79 0
0 78 0
0 77 0
0 76 0
0 75 0
0 74 0
0 73 0
1.96961550602442 71 -0.347296355333861
17.7265395542197 42 -3.12566719800475
15.7569240481953 38 -2.77837084267089
142.809549707136 209 -30.3551068593929
113.465121685121 62 -24.1177561348601
127.159188095395 61 -27.0285198063087
140.853254505668 60 -29.9392834777574
150.634730513006 59 -32.0184003859349
164.328796923279 58 -34.9291640573836
181.935453736488 57 -38.6715744921032
197.585815348229 56 -41.9981615451874
209.323586557034 55 -44.4931018350005
224.973948168775 54 -47.8196888880847
242.580604981984 53 -51.5620993228043
248.449490586387 52 -52.8095694677109
262.14355699666 51 -55.7203331391595
277.793918608401 50 -59.0469201922437
295.400575421609 49 -62.7893306269633
307.138346630415 48 -65.2842709167765
311.05093703335 47 -66.1159176800475
21.5192472161437 40 -4.57405719799071
17.6066568132085 39 -3.74241043471967
15.6503616117409 38 -3.32658705308415
7.82518080587045 36 -1.66329352654208
5.86888560440284 35 -1.24747014490656
170.772047824575 58 -42.5782536255415
188.237370897543 57 -46.9328477463356
190.177962350095 56 -47.4166915375349
215.405651233271 55 -53.7066608231263
232.870974306239 54 -58.0612549439203
238.692748663895 53 -59.5127863175183
275.563986262383 51 -68.7058183503057
285.266943525143 50 -71.1250373063023
298.851083693007 49 -74.5119438446977
7.69009356750655 110 -2.20509884653599
11.5351403512598 104 -3.30764826980399
11.5351403512598 103 -3.30764826980399
11.5351403512598 102 -3.30764826980399
9.61261695938319 101 -2.75637355816999
9.61261695938319 100 -2.75637355816999
9.61261695938319 99 -2.75637355816999
9.61261695938319 98 -2.75637355816999
9.61261695938319 97 -2.75637355816999
7.69009356750655 96 -2.20509884653599
7.69009356750655 95 -2.20509884653599
7.69009356750655 94 -2.20509884653599
7.69009356750655 93 -2.20509884653599
5.76757017562991 92 -1.65382413490199
5.76757017562991 91 -1.65382413490199
5.76757017562991 90 -1.65382413490199
3.84504678375328 89 -1.102549423268
3.84504678375328 88 -1.102549423268
1.92252339187664 87 -0.551274711633998
1.92252339187664 86 -0.551274711633998
0 85 0
0 83 0
0 82 0
0 81 0
0 80 0
0 79 0
0 78 0
0 77 0
0 76 0
0 75 0
0 74 0
0 73 0
0 72 0
0 71 0
0 69 0
0 68 0
105.738786553215 62 -30.3201091398699
121.118973688228 61 -34.7303068329419
155.724394742008 59 -44.6532516423539
174.949628660774 58 -50.1659987586938
190.329815795787 57 -54.5761964517658
213.400096498307 56 -61.1914929913738
219.167666673937 55 -62.8453171262758
236.470377200826 54 -67.8067895309818
255.695611119593 53 -73.3195366473218
267.230751470853 52 -76.6271849171257
282.610938605866 51 -81.0373826101977
290.301032173372 50 -83.2424814567337
303.758695916509 49 -87.1014044381717
15.3801871350131 43 -4.41019769307199
15.3801871350131 42 -4.41019769307199
21.147757310643 39 -6.06402182797398
13.4576637431365 37 -3.85892298143799
11.5351403512598 36 -3.30764826980399
11.4126781955418 103 -3.70820393249937
11.4126781955418 102 -3.70820393249937
9.51056516295154 101 -3.09016994374947
9.51056516295154 100 -3.09016994374947
9.51056516295154 99 -3.09016994374947
9.51056516295154 98 -3.09016994374947
7.60845213036123 97 -2.47213595499958
7.60845213036123 96 -2.47213595499958
7.60845213036123 95 -2.47213595499958
7.60845213036123 94 -2.47213595499958
5.70633909777092 93 -1.85410196624968
5.70633909777092 92 -1.85410196624968
5.70633909777092 91 -1.85410196624968
3.80422606518062 90 -1.23606797749979
3.80422606518062 89 -1.23606797749979
3.80422606518062 88 -1.23606797749979
1.90211303259031 87 -0.618033988749895
1.90211303259031 86 -0.618033988749895
0 85 0
0 84 0
0 83 0
0 82 0
0 81 0
0 80 0
0 79 0
0 78 0
0 77 0
292.925407018907 75 -95.1772342674838
0 74 0
0 73 0
0 72 0
0 71 0
1.90211303259031 70 -0.618033988749895
112.224668922828 64 -36.4640053362438
13.3147912281322 37 -4.32623792124926
9.51056516295154 35 -3.09016994374947
15.0350819325745 116 -5.4723222932107
16.9144671741464 115 -6.15636257986204
16.9144671741464 114 -6.15636257986204
16.9144671741464 113 -6.15636257986204
16.9144671741464 112 -6.15636257986204
16.9144671741464 111 -6.15636257986204
7.51754096628727 110 -2.73616114660535
9.39692620785909 109 -3.42020143325669
18.7938524157182 108 -6.84040286651338
18.7938524157182 107 -6.84040286651338
11.2763114494309 104 -4.10424171990802
11.2763114494309 103 -4.10424171990802
18.7938524157182 102 -6.84040286651338
16.9144671741464 100 -6.15636257986204
16.9144671741464 99 -6.15636257986204
9.39692620785909 98 -3.42020143325669
15.0350819325745 97 -5.4723222932107
9.39692620785909 96 -3.42020143325669
15.0350819325745 95 -5.4723222932107
15.0350819325745 94 -5.4723222932107
15.0350819325745 93 -5.4723222932107
15.0350819325745 92 -5.4723222932107
15.0350819325745 91 -5.4723222932107
13.1556966910027 90 -4.78828200655936
13.1556966910027 89 -4.78828200655936
13.1556966910027 88 -4.78828200655936
13.1556966910027 87 -4.78828200655936
13.1556966910027 86 -4.78828200655936
13.1556966910027 85 -4.78828200655936
13.1556966910027 84 -4.78828200655936
13.1556966910027 83 -4.78828200655936
13.1556966910027 82 -4.78828200655936
13.1556966910027 81 -4.78828200655936
15.0350819325745 80 -5.4723222932107
15.0350819325745 79 -5.4723222932107
16.9144671741464 78 -6.15636257986204
16.9144671741464 77 -6.15636257986204
16.9144671741464 76 -6.15636257986204
16.9144671741464 75 -6.15636257986204
16.9144671741464 74 -6.15636257986204
18.7938524157182 73 -6.84040286651338
18.7938524157182 72 -6.84040286651338
18.7938524157182 71 -6.84040286651338
20.67323765729 70 -7.52444315316471
20.67323765729 69 -7.52444315316471
24.4320081404336 68 -8.89252372646739
41.34647531458 67 -15.0488863063294
48.8640162808672 66 -17.7850474529348
197.335450365041 58 -71.8242300983904
35.7083195898645 37 -12.9967654463754
26.3113933820054 36 -9.57656401311873
202.12608029556 206 -81.6642373646688
92.7183854566788 63 -37.4606593415912
114.970797966282 62 -46.4512175835731
133.514475057617 61 -53.9433494518914
152.058152148953 60 -61.4354813202096
165.038726112888 59 -66.6799736280324
190.999874040758 58 -77.1689582436779
200.271712586426 57 -80.915024177837
213.252286550361 56 -86.1595164856598
228.08722822343 55 -92.1532219803144
244.776537605632 54 -98.8961406618008
259.611479278701 53 -104.889846156455
265.174582406101 52 -107.137485716951
281.863891788303 51 -113.880404398437
291.135730333971 50 -117.626470332596
294.844465752238 49 -119.12489670626
31.5242510552708 35 -12.736624176141
1.85436770913358 33 -0.749213186831824
20.0980000681372 66 -8.94820614766761
20.0980000681372 65 -8.94820614766761
118.760909493538 62 -52.875763599854
135.204727731105 61 -60.1970231752184
155.302727799242 60 -69.1452293228861
175.400727867379 59 -78.0934354705537
188.190364274376 58 -83.7877484736149
210.115455257798 57 -93.5494279074341
219.250909834224 56 -97.6167943381921
230.213455325935 55 -102.497634055102
243.003091732932 54 -108.191947058163
259.446909970499 53 -115.513206633527
264.928182716354 52 -117.953626491982
36.541818305704 51 -16.269465723032
40.1960001362744 46 -17.8964122953352
40.1960001362744 41 -17.8964122953352
36.541818305704 36 -16.269465723032
32.8876364751336 35 -14.6425191507288
195.937102093218 209 -95.5649100000189
194.13951400062 206 -94.6881677064408
8.98794046299167 107 -4.38371146789078
10.78552855559 103 -5.26045376146893
10.78552855559 102 -5.26045376146893
10.78552855559 99 -5.26045376146893
8.98794046299167 98 -4.38371146789078
7.19035237039334 95 -3.50696917431262
149.199811685662 93 -72.7696103669869
5.392764277795 92 -2.63022688073447
5.392764277795 91 -2.63022688073447
5.392764277795 90 -2.63022688073447
5.392764277795 89 -2.63022688073447
3.59517618519667 88 -1.75348458715631
1.79758809259833 87 -0.876742293578155
1.79758809259833 86 -0.876742293578155
0 85 0
0 84 0
0 82 0
0 81 0
0 80 0
0 78 0
0 77 0
0 75 0
0 73 0
0 72 0
0 71 0
0 70 0
1.79758809259833 66 -0.876742293578155
12.5831166481883 41 -6.13719605504709
10.78552855559 35 -5.26045376146893
194.248470428964 207 -103.283743812896
8.82947592858927 108 -4.69471562785891
8.82947592858927 107 -4.69471562785891
10.5953711143071 102 -5.63365875343069
10.5953711143071 101 -5.63365875343069
270.181963414832 100 -143.658298212483
10.5953711143071 99 -5.63365875343069
10.5953711143071 98 -5.63365875343069
10.5953711143071 97 -5.63365875343069
10.5953711143071 96 -5.63365875343069
8.82947592858927 95 -4.69471562785891
264.884277857678 93 -140.841468835767
5.29768555715356 92 -2.81682937671535
3.53179037143571 91 -1.87788625114356
5.29768555715356 90 -2.81682937671535
3.53179037143571 89 -1.87788625114356
3.53179037143571 88 -1.87788625114356
3.53179037143571 87 -1.87788625114356
0 86 0
0 85 0
0 84 0
0 80 0
0 77 0
0 72 0
0 71 0
17.6589518571785 67 -9.38943125571782
17.6589518571785 66 -9.38943125571782
17.6589518571785 65 -9.38943125571782
90.0606544716105 64 -47.8860994041609
111.251396700225 63 -59.1534169110223
127.144453371686 62 -67.6039050411683
151.866985971735 61 -80.7491087991733
165.994147457478 60 -88.2606538037475
185.418994500375 59 -98.5890281850371
201.312051171835 58 -107.039516315183
211.907422286142 57 -112.673175068614
226.034583771885 56 -120.184720073188
236.629954886192 55 -125.818378826619
247.2253260005 54 -131.452037580049
256.054801929089 53 -136.146753207908
266.650173043396 52 -141.780411961339
273.713753786267 51 -145.536184463626
280.777334529139 50 -149.291956965913
35.3179037143571 49 -18.7788625114356
37.0837989000749 48 -19.7178056370074
37.0837989000749 47 -19.7178056370074
38.8496940857928 46 -20.6567487625792
38.8496940857928 45 -20.6567487625792
38.8496940857928 44 -20.6567487625792
38.8496940857928 43 -20.6567487625792
38.8496940857928 42 -20.6567487625792
38.8496940857928 41 -20.6567487625792
37.0837989000749 40 -19.7178056370074
37.0837989000749 39 -19.7178056370074
37.0837989000749 38 -19.7178056370074
37.0837989000749 37 -19.7178056370074
35.3179037143571 36 -18.7788625114356
30.0202181572035 35 -15.9620331347203
10.5953711143071 34 -5.63365875343069
185.32943640987 208 -107
8.66025403784439 107 -5
8.66025403784439 106 -5
10.3923048454133 105 -6
10.3923048454133 104 -6
10.3923048454133 103 -6
10.3923048454133 102 -6
10.3923048454133 101 -6
8.66025403784439 100 -5
10.3923048454133 99 -6
10.3923048454133 98 -6
8.66025403784439 97 -5
8.66025403784439 96 -5
5.19615242270663 91 -3
5.19615242270663 90 -3
3.46410161513776 89 -2
3.46410161513776 88 -2
1.73205080756888 87 -1
1.73205080756888 86 -1
0 85 0
0 84 0
0 76 0
0 75 0
0 73 0
0 71 0
0 70 0
0 69 0
3.46410161513776 59 -2
183.178388769788 174 -114.462561074372
11.87267334619 116 -7.41886969926487
11.87267334619 115 -7.41886969926487
13.5687695385028 113 -8.47870822773128
10.1765771538771 106 -6.35903117079846
10.1765771538771 105 -6.35903117079846
10.1765771538771 100 -6.35903117079846
8.48048096156426 99 -5.29919264233205
8.48048096156426 98 -5.29919264233205
8.48048096156426 97 -5.29919264233205
8.48048096156426 96 -5.29919264233205
8.48048096156426 95 -5.29919264233205
6.78438476925141 94 -4.23935411386564
10.1765771538771 90 -6.35903117079846
10.1765771538771 89 -6.35903117079846
10.1765771538771 88 -6.35903117079846
10.1765771538771 87 -6.35903117079846
10.1765771538771 86 -6.35903117079846
0 85 0
8.48048096156426 84 -5.29919264233205
8.48048096156426 83 -5.29919264233205
8.48048096156426 82 -5.29919264233205
10.1765771538771 81 -6.35903117079846
10.1765771538771 80 -6.35903117079846
11.87267334619 79 -7.41886969926487
11.87267334619 78 -7.41886969926487
11.87267334619 77 -7.41886969926487
0 76 0
13.5687695385028 75 -8.47870822773128
13.5687695385028 74 -8.47870822773128
13.5687695385028 73 -8.47870822773128
0 72 0
0 71 0
15.2648657308157 70 -9.53854675619769
15.2648657308157 69 -9.53854675619769
0 68 0
174.697907808224 67 -109.16336843204
27.1375390770056 41 -16.9574164554626
27.1375390770056 38 -16.9574164554626
22.0492505000671 37 -13.7779008700633
8.48048096156426 35 -5.29919264233205
122.697560738146 209 -82.7605497136705
8.29037572555042 107 -5.59192903470747
8.29037572555042 106 -5.59192903470747
9.9484508706605 104 -6.71031484164896
11.6065260157706 103 -7.82870064859045
11.6065260157706 102 -7.82870064859045
11.6065260157706 101 -7.82870064859045
9.9484508706605 100 -6.71031484164896
11.6065260157706 99 -7.82870064859045
11.6065260157706 98 -7.82870064859045
11.6065260157706 97 -7.82870064859045
9.9484508706605 96 -6.71031484164896
8.29037572555042 95 -5.59192903470747
3.31615029022017 89 -2.23677161388299
3.31615029022017 88 -2.23677161388299
1.65807514511008 87 -1.11838580694149
1.65807514511008 86 -1.11838580694149
0 85 0
0 84 0
0 73 0
0 72 0
0 71 0
1.65807514511008 67 -1.11838580694149
61.3487803690731 66 -41.3802748568353
77.9295318201739 65 -52.5641329262502
112.749109867486 64 -76.0502348720216
126.013711028366 63 -84.9973213275535
149.226763059908 62 -100.654722624734
164.149439365898 61 -110.720194887208
174.097890236559 60 -117.430509728857
190.67864168766 59 -128.614367798272
195.65286712299 58 -131.969525219096
227.156294880081 55 -153.218855550985
176.365704773739 206 -128.137184999759
8.09016994374948 107 -5.87785252292473
8.09016994374948 106 -5.87785252292473
9.70820393249937 104 -7.05342302750968
9.70820393249937 103 -7.05342302750968
9.70820393249937 102 -7.05342302750968
9.70820393249937 101 -7.05342302750968
9.70820393249937 100 -7.05342302750968
9.70820393249937 99 -7.05342302750968
11.3262379212493 98 -8.22899353209462
11.3262379212493 97 -8.22899353209462
9.70820393249937 96 -7.05342302750968
8.09016994374948 95 -5.87785252292473
6.47213595499958 94 -4.70228201833979
3.23606797749979 89 -2.35114100916989
3.23606797749979 88 -2.35114100916989
3.23606797749979 87 -2.35114100916989
0 86 0
0 85 0
0 84 0
0 73 0
0 72 0
0 71 0
0 70 0
6.47213595499958 35 -4.70228201833979
118.201613041008 209 -92.3492212988488
9.45612904328067 106 -7.3879377039079
9.45612904328067 105 -7.3879377039079
11.0321505504941 102 -8.61926065455922
11.0321505504941 100 -8.61926065455922
11.0321505504941 99 -8.61926065455922
11.0321505504941 98 -8.61926065455922
7.88010753606722 97 -6.15661475325658
7.88010753606722 96 -6.15661475325658
7.88010753606722 95 -6.15661475325658
7.88010753606722 94 -6.15661475325658
3.15204301442689 87 -2.46264590130263
0 86 0
0 85 0
0 84 0
0 75 0
0 74 0
67.7689248101781 66 -52.9468868780066
83.5291398823125 65 -65.2601163845198
105.593440983301 64 -82.4986376936382
124.505699069862 63 -97.274513101454
144.993978663637 62 -113.281711459921
162.330215242985 61 -126.826263917086
173.362365793479 60 -135.445524571645
181.242473329546 59 -141.602139324901
197.002688401681 57 -153.915368831415
209.610860459388 56 -163.765952436625
25.2163441154151 37 -19.7011672104211
22.0643011009882 36 -17.2385213091184
4.72806452164033 34 -3.69396885195395
3.06417777247591 85 -2.57115043874616
180.786488576079 74 -151.697875886023
29.1096888385212 68 -24.4259291680885
53.6231110183285 67 -44.9951326780578
